ply
format ascii 1.0
element vertex 718
property float x
property float y
property float z
property uchar red
property uchar green
property uchar blue
end_header
-1.0126867334922285 0.6541821527395402 3.560680120773584 71 32 36
15.087878631093432 -5.695432290672113 10.519212884690226 152 167 218
-1.7680857945335382 0.8580283866803622 4.907594726335369 50 27 28
-3.107059108590198 -1.0675870137824193 5.544530808334604 83 67 93
-1.834383745073398 0.8556871018465613 4.905732514382931 53 33 28
-3.048544205822897 -1.08868003827163 5.551053882842068 111 100 129
-1.9961779055850584 0.8582543187466901 4.897598448836462 69 41 37
17.131450872550843 -6.28420040908353 10.1665348114739 108 99 134
-2.0206704054775986 0.8566261170122736 4.895155349909458 58 38 36
-0.9210651131589561 -1.5190868839695038 5.2861601654303145 71 33 37
-2.104223133400305 0.8133422482418177 4.898864520640242 70 41 45
15.427603786890147 -6.0912374187818 10.504057519853877 154 156 201
-2.1098946556604425 -1.3363939478242 5.602770292456001 58 47 58
-2.7386220418739367 0.90585378634382 5.487266719542983 59 53 68
15.690627198037195 -6.2957542800493105 10.411958981575372 177 184 234
-3.003913148409718 0.8924156783364579 5.460372828091624 58 45 62
-3.1601885486247685 -1.1317467710907876 5.55023644393219 115 98 123
-3.2825435461162424 0.889426131292741 5.455156929753282 112 101 115
15.357093171342198 -6.306408176617474 10.506374954630608 180 200 244
-2.572068742570227 0.8935700452096121 5.490565877859731 68 52 69
0.4822666793410755 -1.903795997824757 5.307965591269644 0 0 0
-2.8581527218999345 0.8913058125245754 5.478503001434602 54 44 62
-1.4505168084962046 -1.4721238567968855 5.20885054500664 113 66 75
-1.851793545248645 0.7824405421287349 4.881508523531026 50 24 23
16.15264578610357 -6.5041986923352555 10.321584258338325 148 166 218
-2.498812476727206 0.8709944099035373 5.506166510881758 48 39 48
-1.499691095274357 -1.4865042127626062 5.165919798537705 118 70 84
2.742647304998678 0.8732598565630637 5.6755875175044235 72 56 76
-0.9456932349763053 -1.6326456090342176 5.22700367879011 61 29 34
2.347407723605119 0.8738967583030416 5.665185888987402 96 81 106
17.244728894531598 -6.941852876132317 10.192836616550677 136 126 171
15.61589654832097 -6.592839748243612 10.445344530267581 155 169 217
-0.8506277535569531 0.7539511471580694 4.88108907231619 154 124 156
14.971272701703983 -6.501550821930372 10.55899574468466 167 186 234
-1.9417907194679467 0.7200459147807619 4.840945208663251 69 37 36
-2.169701671725156 -1.4356324668464466 5.605824893405328 97 74 91
-2.1643757100017633 0.7169047940446018 4.82960005737654 78 41 48
-2.697285779917631 -1.3094680465033917 5.573159902604201 67 53 72
-1.8072591724209723 0.720426524675815 4.8448863764164924 77 39 38
16.343855690989226 -6.866795241578997 10.294994177617523 176 186 228
0.6012391592043893 0.7228808095404863 4.936819813770888 98 65 77
-1.950121664550331 -1.511565737763341 5.614874206573224 93 66 80
-2.8787751020881904 0.798638551822874 5.46410789820708 114 101 121
-1.363787912702587 -1.5988920106170306 5.201916733189012 129 72 86
2.429411619512089 0.7852963120784237 5.6667500034283735 103 82 95
16.046342163022665 -6.960132436842415 10.494740783173878 122 121 149
-2.85884940349833 0.7562635177689278 5.473021043539394 99 86 107
1.8752980971001747 -2.489818327416414 5.746095394915424 0 0 0
-2.5331691797187412 0.7530940874912359 5.487123730288325 87 77 88
2.6744560997881837 -2.7483295940073744 5.830743287431759 78 56 91
-1.9381899067955273 0.654002329302862 4.841929369511086 106 72 82
-0.9173225252069722 -1.7354605532809477 5.241311114194735 56 30 39
-0.6819539412423189 0.6545086839112668 4.892414156370417 137 92 110
-2.380573291656114 -1.4374368560266244 5.592571483114079 114 93 114
-0.7828975995102231 0.6522552062730436 4.887886595267384 141 98 115
-1.632261861633183 -1.6449681960961906 5.636133731009564 80 58 70
-0.8501918508405166 0.6570234507060212 4.885044414201897 137 85 101
15.588122697140978 -6.984436874566355 10.588175496783007 152 157 189
-1.113449584379879 0.6576833276416381 4.8787499412608435 124 73 92
-1.1365376879816584 -1.7010895220118532 5.264832213943173 93 51 60
-1.3291117280852174 0.6533779565286371 4.8557574859208685 127 85 102
14.882896360690097 -6.847057645019982 10.578454761341163 126 119 166
-0.2232157941931101 0.6501130738030155 4.905756373283371 140 99 115
-2.1817338608135373 -1.5236183797677738 5.606489299660991 108 87 102
-0.254100183877379 0.6552947931053351 4.956760366711734 139 104 123
0.3837499327388407 -2.069789021697984 5.067466896336228 89 57 69
-0.31878673379324024 0.6478585654712959 4.905546864902964 138 107 124
2.4322462003962246 -2.7619592300092615 5.838942958071362 92 72 102
-0.43985875518940565 0.6573659697208835 4.98000775925217 141 108 123
-1.3274800851098807 -1.7626477903791755 5.665063485960759 77 64 86
-0.5821403995658465 0.6489344362303813 4.891979086227167 127 96 109
-2.97996415158672 -1.3232555453532513 5.562146933359649 113 98 122
2.253886689082431 -2.7354247262676594 5.825575050254479 115 87 112
0.7134159215128285 0.6497201086742302 4.938201686865448 139 88 103
2.6649724447951115 -2.9475404625237474 5.849754368803929 92 75 102
0.6025634663518371 0.6481907686075928 4.937765786533613 153 104 122
-2.3005558556872465 -1.5727954719207935 5.613249204280136 79 65 78
-0.052999525071532376 0.6585472050702965 4.998090645859269 120 93 108
-1.710595143269567 -1.796084385389395 5.643894376845228 122 99 115
-2.1059040416269976 0.6556212225317991 4.922124914609332 118 87 98
-2.11391865392442 -1.7298618481554542 5.536875171927779 0 0 0
-3.1874916541578626 0.7062141466008693 5.468103903398357 108 104 128
3.0061434343924462 1.2198103450015552 5.98057976949502 61 62 82
-2.8167849784890766 0.7006644873405596 5.480039814957253 66 60 74
3.1023742329626782 0.6993184315200857 6.278792751880067 66 81 115
2.359116085866014 0.6976749453030191 5.672703237747433 77 64 76
3.1053790183774894 0.3854446520501255 6.290208536812954 117 135 165
3.143355957412715 -0.023359078011224742 6.441436498297662 92 109 145
-0.3323332985801114 -0.20549893579456727 5.219218628414787 156 148 148
-2.634303238096354 0.682624253835768 5.499690013394192 55 53 69
2.98784555057284 -0.0858718025493204 6.060576321833342 91 88 119
2.7170384038094966 0.6874952546410568 5.678216703706476 71 53 66
3.196134613057225 -0.6198077207018308 6.444622667035361 0 0 0
2.2724690508455563 0.6943451868071312 5.67329676937025 95 84 103
3.012398769514682 -1.412746983240423 5.843002170189056 75 57 69
2.9447953419006425 -1.5231202817861063 6.186011198857033 83 63 80
-1.6510816857435147 0.6039789572033645 4.944222177769394 89 57 68
3.2080243972155906 -1.868226060883407 6.5363977649608405 149 167 204
-1.9401482750322794 0.6032298569907499 4.928775852972234 73 45 54
0.11506793610128165 -2.5470441120628826 5.456472661774682 146 99 115
2.522089120507699 0.6738348476245936 5.66680389126593 120 92 106
3.2846963525845667 -1.9842991573281008 6.615900866611497 140 153 200
-0.053354714353826396 0.601446992130879 5.002886067580024 138 102 120
1.5703158096093481 0.6538697249535624 4.9769866073298195 105 68 83
-0.14565564494237723 0.5959442028675158 5.000957056833262 125 72 89
2.9824979026432215 1.4950293076743266 4.953599991789303 63 78 83
-0.4535942553813397 0.601936293694981 4.989351344067909 109 65 82
-0.28029259221037217 1.3714441204486592 3.3139349839506718 0 0 0
-0.5564748945213093 0.6035631582775984 4.985522289245159 150 108 126
1.6093610551723474 1.4415383339239305 5.4259352488051835 0 0 0
-0.9567250620791917 0.601445700322806 4.971524342987425 111 63 87
3.1125251255679136 1.2068197217278567 5.571312090934306 0 0 0
-1.1386750210381549 0.5975730754979952 4.96287865115661 118 66 88
-1.7821414602956547 1.3896606636231046 3.785423377444146 61 71 75
-1.4525721975123544 0.5993842093496418 4.9514192672258694 85 43 61
0.9266186117365426 1.2503304196015665 4.917789043789185 95 65 78
-1.548930088807467 0.6023036290180183 4.949887791654749 112 79 93
0.8461437393681559 1.1170666237635178 4.0613776082200665 139 97 118
0.9452192018993433 0.6034760720281335 5.040026640666692 142 104 115
0.9416576570329723 1.092971042320665 4.310669511434761 0 0 0
0.5407859529025607 0.5968266811795588 5.024507080589191 85 47 63
3.282033171848159 1.2587826876029156 6.989637642252445 133 146 181
0.05006520513621566 0.5969399266642674 5.008039028301592 84 45 58
0.8066154717409991 0.9258280561458381 4.028822596238361 120 75 96
-0.6433868912479679 0.5930154414304326 4.980358882478612 121 70 88
0.7779524344431292 0.8994032032814123 4.004861059201978 103 54 70
1.3541236916578605 0.5964966512924563 5.051965318386122 112 65 79
0.9624201193360138 0.6741259038979935 4.124107656837 99 49 52
1.0490571616305908 0.5943472521522232 5.041086741478832 94 51 66
2.9684909185141417 0.7028338509753145 6.052772370325122 52 46 57
0.8530944248588116 0.5987498774379504 5.035438753553846 116 70 88
2.4742661531596584 0.6871401422058017 5.67247603956341 68 58 71
0.3534719007983131 0.5931534584925852 5.017402627510457 121 67 83
-1.3248779145770628 0.7661216906409472 4.867401819121862 142 121 154
-2.0736104009810497 0.5865621287455861 4.924850883625103 113 75 88
0.7942117183852465 0.6535158176323558 4.8179910356874895 146 101 122
-0.7509039388037968 0.5819612658811901 4.981956744130316 143 97 112
3.03448742371261 0.6076274096448694 6.198968940523352 98 110 147
-1.2496484541982658 0.5803015807001198 4.962817087285779 151 105 125
1.52243323948438 0.5001871867907742 5.5386202773944495 0 0 0
-1.347268912245564 0.581148955553146 4.9585282896897604 128 84 105
1.7750609520058633 0.4962124908160127 5.650300132436691 85 75 100
-1.9594196320480408 0.5774837392034873 4.930028398584349 116 66 71
-1.6537424095386948 0.422608489854896 4.9527680218931565 111 79 94
-0.25700720524622467 0.5778906889435355 5.000688645908769 149 102 121
1.4958501531771875 0.4234791764049553 5.646634623073628 0 0 0
-0.34938403429187487 0.5780256733288729 4.995263565117207 124 86 109
-2.0184815444528126 0.2231821992634349 5.113826097490838 126 82 95
-0.8507899428813697 0.5765009263771939 4.97935296343228 117 75 96
2.362553726861371 0.2701094466164692 5.735583162566516 0 0 0
1.2512824660519912 0.5765267379299387 5.052327282500887 148 109 127
1.691663369498316 0.06825024707409834 5.615509499870141 73 52 68
0.6450461302158293 0.5726615579050078 5.030849909851682 112 70 92
-0.18667788143356964 -0.03619360425141708 5.069319614923371 0 0 0
0.2427179568558536 0.5735646388028606 5.01683316757562 144 100 119
0.740185858898785 -0.058287241957541334 5.370105140020308 0 0 0
0.15517209583039712 0.5742719888958149 5.011965825950912 131 87 110
-0.31130269559710705 -0.2562095427948355 5.147929497542623 142 126 126
1.155355199119418 0.5717513757749166 5.046180495099379 98 60 77
-3.2852983980465678 -0.5758402741101822 5.532161357594093 83 78 106
-2.536936499744126 0.6149496077676977 5.496754217162737 47 37 50
1.4501011552901255 -0.3293430000997862 5.440474714852209 55 29 30
-0.14303810998875463 0.554958520784388 5.005004420670909 108 68 87
1.3624531447537067 -0.3754342951008217 5.355051696672685 65 38 44
-1.4527279544781724 0.5546486532908512 4.956272771910781 92 58 75
0.16217289934145176 -0.4720642598861154 5.2839624588437735 82 49 62
-1.4951492970219717 0.5526758351687702 4.951136712515318 87 41 49
-0.3251532805974822 -0.5100894858875492 5.065195052543418 0 0 0
-1.6385009237333212 0.558546284963149 4.946096698984402 114 71 88
1.4839790960204535 -0.3984444689846208 5.315250118331066 0 0 0
-1.9701253160573506 0.5516230025925541 4.932376991976066 116 69 79
-0.2595029229310119 -0.6179635130092117 5.345672896790468 83 75 70
0.8504655715982017 0.5641456333435041 5.039590059773967 142 89 111
1.388965698831332 -0.5412531182229553 5.299997745351982 0 0 0
-0.5003959951753775 0.5529475567123117 4.987852491537269 82 46 61
-1.0322367799276597 -0.8282650661097191 5.322508810140976 0 0 0
-0.6448116953072011 0.5559274412975334 4.9857412829369405 108 68 84
0.23696595253263822 -0.6820760690331402 5.272096446890118 87 47 57
-1.0015561335444376 0.5543859380014374 4.971020689798042 82 42 53
1.537499368040798 -0.594595405755958 5.7080152836493765 0 0 0
-1.1387176319404853 0.5560039546633295 4.967134641003082 125 77 93
1.2830610361102344 -0.6365404116502502 5.280018535669555 0 0 0
1.35389914131562 0.5491916818153216 5.056117893962435 86 51 66
2.0859488062243834 -0.5914460195581317 5.725827893643687 62 46 54
0.011988709703837207 0.5473569915782083 5.008173948773875 136 89 106
0.30016007044836607 -0.8615740863665884 5.182644229526513 0 0 0
-1.8149722032641078 0.5312801022232508 4.9426617769038454 72 54 62
-2.536223226247231 -1.2442909740637709 5.593655593317827 73 58 77
-2.394421942693197 0.5950355602209848 5.503106897662445 60 46 60
-1.3132231894924173 -1.1532475355757912 5.267216773194074 83 47 62
-2.6235674361866232 0.5962217789170416 5.497366215966231 51 44 52
-0.4260842730722055 -1.09126634709841 5.316330341434501 52 27 31
-0.8040360173691753 0.5312766401621676 4.984812920958811 140 98 120
0.7371552050223015 -1.0473045903220732 5.690327881960262 107 82 104
-1.2933742318877037 0.5330288134671729 4.965697693854266 142 100 117
0.7881841357206466 -1.019010510300239 5.344137476915404 149 102 121
-1.5479444315490982 0.5282390264741909 4.948863720299707 77 39 43
0.24875391810110214 -1.2286727234297106 5.217929881204748 75 43 47
-0.046208320200891106 0.5253857313567878 5.004994354645176 103 57 70
0.26827532170960383 -1.4479084556971402 5.313077032995188 101 57 67
-1.0498586893795916 0.5237398237262296 4.968640749079959 127 75 85
0.6533521882790905 -1.4180507066700447 5.316712070907202 105 66 77
0.9396655594842418 0.5188216027319842 5.0399220055031595 112 64 71
3.231914871458308 -1.1048538400267849 6.403990497759593 107 122 166
0.44744891981101975 0.5226700140776672 5.022832919374176 123 73 80
0.6612833636992286 -1.5023609914369527 5.361504616221279 0 0 0
-1.6863019787172244 0.5010747485803272 4.946110237362659 80 51 59
2.052620678198697 -1.294485837263323 5.753148037116421 59 41 47
-2.0529399657516603 0.5084538971747116 4.929182150420118 60 44 44
0.37034312980964174 -1.6058168139098978 5.320704418602582 0 0 0
-3.3058800779519846 0.555961139510924 5.46429264357662 97 76 95
0.4984389054989307 -1.7262559463994858 5.67927837933316 0 0 0
-0.18916684068326856 0.5080967859704536 5.007769010515055 103 64 84
0.6831707936351199 -1.6640655136149876 5.3655410644792365 128 73 82
-0.6909590538116287 0.5047993875705608 4.98816397473976 104 66 85
0.7244411031081857 -1.902504543403115 5.729347971936703 91 63 81
-0.915558410237026 0.5022446321878539 4.983481776394227 120 79 99
1.8468355380084485 -1.7812191124266308 5.765430283337805 0 0 0
-1.1899379231735732 0.5026755976103813 4.971728462603154 108 72 90
0.34412802040523416 -2.040365034313867 5.076341892418964 101 54 62
-1.4101824343477039 0.5049595171408239 4.961488213593008 112 72 90
2.9664889708911426 -1.5476029222355634 5.815809681924808 0 0 0
-2.972525353068512 0.5520272161245058 5.485576395160056 53 43 59
0.23780573876639535 -2.219542712205007 5.164431617830715 0 0 0
-3.2223463810096775 0.5527293407674925 5.481925802462755 79 79 103
-0.8652187964404106 -2.82167327767874 5.729367324915734 135 82 101
1.4646525738732818 0.502593486615497 5.059786780929271 100 64 80
-0.53002007429427 -2.9009595899201814 5.731140641642908 56 44 59
1.3087604875575227 0.5048395329950341 5.058719593522164 106 67 87
2.614648202520213 -2.0559847845440475 5.805860446207752 50 37 53
1.0878104371443587 0.49701629255513674 5.050792371520611 99 66 77
1.4420727257668355 -2.4877428169648246 5.788401356752626 75 51 66
0.5838267997374773 0.4994160170053896 5.03464927463292 106 70 87
2.421210038613664 -2.304898429108005 5.811311198926135 0 0 0
0.30655432087688866 0.5015134443981786 5.0253032734133 110 73 93
3.1569517348708116 -2.2866194400319175 6.419166621026015 135 151 195
0.0877755024729988 0.504281794007947 5.01586088896123 114 77 98
1.3473386653089172 -2.741224903450917 5.801949162934371 102 82 106
-0.4130030781645715 0.5036211818802475 5.001312046249128 130 83 103
1.6133358548697372 -2.7345216447276597 5.8098001561456325 73 51 74
-1.9054284668122599 0.49718211025073084 4.943016843088631 83 64 70
-3.8129179924378356 0.5183346692352675 5.4450274726587065 108 125 164
-3.2556289812672508 0.5530145987951357 5.473972022180611 89 77 101
1.4970196990651257 1.2168623439630495 5.575448194387807 102 66 80
0.8044444095371742 0.5060831456367032 5.042302602354729 111 67 86
0.903793598940557 -1.4359081217529082 5.36434383903801 76 51 64
0.2021875172275891 0.47549929994559015 5.020936333870576 66 44 55
3.1199423787583616 1.3604864855019712 5.540058404310782 85 86 109
1.3555390147018958 0.4472080740663663 5.056816821551484 89 53 65
-1.5168548689990362 1.2503225334755201 4.812063149217869 48 34 35
-1.3844360933572237 1.084341475027111 3.982691391550507 97 56 63
-2.490032289801669 -1.2413591046197325 5.5948305647192385 59 43 56
-1.4685662522337528 1.2309667844748102 4.714900935688596 50 31 33
-2.9046595502437462 -1.2486220535374217 5.5720099397282 59 51 76
-1.434695657820816 1.1263066989855592 4.223795756911043 59 39 41
-3.0048471218251946 -1.2407599153650786 5.559598757758911 46 40 69
-1.022055046036377 1.0564763615573969 3.6446724731776112 62 34 40
2.0986680632160395 -1.2878419406930688 5.748213395893552 125 105 121
-2.197919120703637 1.2730495539395352 5.467159111459186 34 34 40
1.4118153250424017 -1.2806226609617464 5.737113154791299 111 97 119
-1.292808688967049 1.037204200694121 3.9020972161640795 97 63 76
-1.4402649564420085 1.1384934891161216 4.470187779215667 64 39 38
-2.794496667448092 -1.249624218983476 5.5794825487395805 71 55 70
-2.1477131835468497 1.2541876116536594 5.467631011775556 53 30 38
-3.2453738670300236 -1.246619491639698 5.550432975008301 43 39 55
-1.43103531561188 1.0507483715942563 4.118516594585024 76 45 48
-2.108748199572493 -1.266424208082948 5.605569267601095 60 50 71
-1.162945244773622 0.9822424804879017 3.7803435011289217 81 48 54
-2.231149447486065 -1.2665998548408206 5.606659157162573 75 71 90
-1.6209317314367622 1.152960893986372 4.901163600636228 74 38 42
-2.6960793660374094 -1.266461458132284 5.579899570127367 83 63 82
-2.212480507531189 1.1741716384146155 5.483498228981038 45 31 30
2.412052608753965 -1.3174165603570722 5.771476792385732 98 77 89
-1.1584029228148787 0.966397160229613 3.7748897791364295 86 47 53
3.306963550124919 -1.2505124503462717 5.440493950945733 116 108 145
-2.7191197952710415 1.0947096235131324 5.4350480408658655 53 46 55
0.5893340164770475 -1.248379002240489 5.4136169540114 71 38 46
-1.1618297734385399 0.9446513773881471 3.7787218044280966 78 44 50
-0.5032736984696745 -1.2241591998361405 5.2858971087072275 81 51 63
-1.0711265188051182 0.9381778595063363 3.6981198925306096 54 32 35
-0.9920883797361943 -1.2495003085025724 5.419765348447698 63 27 31
-1.338797952058373 0.9360280209932608 3.9430159594877106 89 52 56
-1.2184721500881546 -1.2443996878450232 5.355948193898641 61 26 33
-1.8014408866389113 1.0719359042097207 4.897698778622707 49 44 43
-0.09084015537243002 -1.2269278922513973 5.302708910127268 66 42 50
-1.2980558894002634 0.9339015353737975 3.9043649667528895 77 43 50
-1.0791082693365506 -1.25478210448566 5.39960712857845 62 28 36
-1.2781628779991887 0.9312771271335714 3.8857897913477393 97 56 65
-0.15259206087683852 -1.2416284256157726 5.300742025038163 83 51 60
-2.1661216135813692 1.1242970219666295 5.4863340709622594 51 36 40
-0.5660860841608892 -1.2365638596531774 5.290215910902127 79 51 65
-1.3663408249547966 0.9209420564218316 3.961849657364378 85 44 48
-1.704229263633255 -1.3010145155323514 5.622714052614949 97 68 82
-1.4335049198693175 0.9792531273415849 4.317301085658259 43 26 27
-0.2702587575736758 -1.2511165973004437 5.290799703598317 82 36 46
-1.7536639915814798 1.0518181419358335 4.901002082020099 73 40 44
2.6197930337633664 -1.346554271298765 5.773513564263364 112 97 120
-1.2418021358141647 0.910402739831575 3.848535796232227 93 52 59
1.7976424216878253 -1.3392828586481498 5.749998569341177 81 62 80
-1.1828289560812284 0.9061973820160585 3.799443065842922 87 51 55
-0.36476312294143526 -1.254140310582723 5.286892455033874 75 37 48
-1.4297078836393984 0.9338516317077928 4.142037113608375 64 34 34
-0.46497768751176954 -1.24889993963865 5.295358112234805 100 68 88
-1.3364844686797923 0.8891430828744636 3.9441042379333804 66 35 41
-0.008945992505890791 -1.285578897174712 5.296045726912036 89 46 53
-1.3878428077085339 0.8845958436084119 3.988666821530622 100 58 68
-0.17284722799468724 -1.2749539651831523 5.306274445222499 94 64 79
-1.0256237554515772 0.8613881388837491 3.651225237999593 83 46 50
2.3919228366746346 -1.3835602200319816 5.769127261674395 106 76 89
-1.430172169734699 0.9023802939081413 4.1829386870121885 55 28 32
-0.5117615204980028 -1.2840739803625003 5.286329775188755 87 46 60
-2.156212300200021 1.0390078142692523 5.487110827682907 56 42 49
-0.4452569255519846 -1.3156010900425688 5.28928362613564 66 36 44
-2.5422239111637763 0.9846395720112632 5.474802201599675 93 70 78
-3.239329508863046 -1.3399596102954308 5.555126485774284 87 68 93
-1.3361587892626825 0.8315594017238678 3.9430085420853977 65 34 38
1.3789438047074676 -1.3872492123375098 5.733552504503298 108 89 111
-1.4518163487216746 0.9472574881919696 4.75670723411141 35 23 23
1.2669115125712198 -1.3875007188543627 5.719634504672812 101 77 96
-1.2060205845444187 0.8114866005300919 3.8213550659438256 87 49 52
-0.18699731680376763 -1.3005644122174442 5.3011697471181645 95 64 80
-1.3646358180986309 0.81743003553635 3.962417440153012 77 37 40
-0.6107555296356519 -1.295364014618307 5.276099879106103 94 52 62
-1.3723365509562666 0.8200379169281599 3.973729184978712 83 44 48
-0.31221897644314467 -1.2989849791575567 5.288049694460514 85 47 55
-1.6523939162272925 0.9437693878651535 4.918570058109516 51 34 45
-2.226767315078243 -1.368730007515684 5.604389486929318 74 59 75
-1.4331729576888446 0.8394242718808427 4.190402712925742 72 37 38
3.248599437968913 -1.3422542304200298 5.448547563434114 108 93 104
-1.5275186161515153 0.9128185002583061 4.915295616808733 40 26 26
0.6971636159397426 -1.3219624306348945 5.330477088361911 106 66 79
-2.1405096446626835 0.9183741105272606 5.488519187918846 52 45 49
-1.0878698779364497 -1.3360205856468337 5.35967685477207 59 23 27
-1.100529236715483 0.7249822035725356 3.694365957428531 50 24 28
2.602458462348278 -1.4217692473286212 5.772317055035403 137 117 136
-1.6206043051418981 0.8684769053841387 4.910424682356816 73 38 44
-0.04517585088950148 -1.3177224671292143 5.290218951322877 93 53 60
-2.223219261419843 0.8700659372061202 5.5055101142257135 61 53 65
-0.10560748221139073 -1.3210694902690456 5.295212027361365 118 65 70
-2.7585220432663204 0.8269743204374479 5.480789190785946 90 68 72
-1.3365890673873126 -1.3127749355093883 5.263704281207707 82 56 59
-2.1496388117670997 0.7795883158360124 4.860368523679562 44 24 24
-2.7032009601926976 -1.3821045098569789 5.578459410345778 89 71 95
-1.9177822547515346 0.788056474486893 4.894024572650698 35 20 17
-0.5306405153326698 -1.3243116989870238 5.283579272221047 85 47 55
-2.14581767301216 0.7537122389532559 4.853956623510239 71 41 41
2.389766825689883 -1.4256660379105208 5.771225221272055 103 82 99
-1.1209135696584922 0.6647277520133473 3.6738026145215725 58 26 29
-0.5720161489749989 -1.3323389003655672 5.287876422247448 112 64 72
-1.3326567351025385 0.6680505464691551 3.852686116135825 51 30 29
-2.9084742591749646 -1.3907793076769406 5.5711814622032865 108 90 114
-1.4901590336959334 0.7786209984127932 4.76552870649326 26 17 15
1.8115463217571213 -1.4452813597156569 5.7526437471531375 101 75 89
-2.177965472085897 0.8026261885527938 5.496490223167611 43 31 34
0.03813542478220697 -1.3224717109265072 5.182399157919014 94 57 71
-2.8558569554442412 0.7098453093988967 5.4849714405586125 91 89 111
-1.192157774569619 -1.345226237969315 5.297956132976394 61 42 50
0.4922350139035797 0.7265777984116488 3.6708275259956014 76 52 65
0.5574654513968654 -1.35655311529767 5.345465234529445 68 40 49
-1.521565223165446 0.7218533947897199 4.8315288011271145 34 19 17
-2.0899294519618845 -1.4200602674850205 5.614195308251581 89 68 84
-0.889719115511839 0.7588813420435685 4.841577648193962 154 119 141
-3.0762571017562697 -1.4037601151745176 5.560859298330633 94 75 106
-2.177114021398472 0.662163055676933 5.015431979026089 83 52 53
-0.15172899932726472 -1.3557211216279395 5.298098587865441 74 39 46
0.5044613245472582 0.6661110879874566 3.6305535605622543 83 54 68
-0.24309201369687095 -1.34697888820782 5.288358123325943 98 58 68
-0.6694374703364304 0.7284896259826309 4.88992450905608 114 73 91
-0.40285746606829065 -1.3574356955231022 5.287697124309978 103 59 71
-0.4677494083580619 0.7308270923123662 4.89819401223777 94 74 101
-1.4648401126685557 -1.3555201829130223 5.257612864877732 90 51 62
-1.5492700355077789 0.6636007400867655 4.942406979778793 133 95 113
-0.48175048570556084 -1.3584265366753445 5.2891578870837765 66 36 44
-2.2148134869529454 0.6797297503021662 5.5017827681979155 44 39 51
3.232066887544192 -1.405540544629303 5.461479512752698 144 163 205
-0.32634105827237636 0.7290347706995486 4.902403574908397 110 76 96
-1.8023939195049044 -1.4521293339405605 5.6234429601199 109 88 103
-0.20255046929364007 0.7305581544419739 4.906301968594757 84 84 124
-0.2348631334671263 -1.3815757617522122 5.290691745229736 95 48 56
-1.3164885266254172 0.6529661886368939 4.838973911929641 137 91 115
-0.03880370530636544 -1.3876967838263525 5.3034997174259315 55 22 32
-2.221365980353057 0.6428506399541857 5.504331576350198 63 49 59
-0.4095821543420685 -1.3794181148518176 5.290593799067973 116 65 74
0.7079299360086649 0.7355944450016814 4.9446476466234195 35 60 98
-0.5916852003939841 -1.389205378051031 5.288347496878227 67 28 37
-2.0033768361164803 0.550172386093015 4.929415058636631 36 22 26
-2.2329650062188513 0.5700659094765377 5.517673241516079 75 65 79
-1.9230411053596708 -1.4701171068004035 5.619756673550831 106 85 99
-2.230242369974903 0.5518586141666602 5.52219290407619 81 73 92
0.12734227841916443 -1.3750289480028273 5.157650824543669 82 37 45
-2.1313288900927443 0.5481047346635674 5.503109954913784 59 44 54
-1.0316806092775954 -1.4189028482498058 5.366060041343289 51 22 25
-3.10877534385348 0.44530658384232147 5.473299950393179 52 54 81
0.8138659624434694 -1.4188908567322418 5.350559308929394 79 44 55
-1.0003354351669154 0.46019962083258703 4.977371525716872 132 84 105
0.2256462187584518 -1.388061731302395 5.196324953590527 87 44 60
-3.158738515928168 0.40479534010162904 5.474456630577151 45 50 67
0.05026195474369217 -1.3856757005036204 5.18190998912729 84 46 57
-2.934276276991311 0.3999928456527803 5.492209564566267 70 71 87
-1.3502881072137027 -1.3986464848064384 5.219567720508129 57 30 34
-2.147837813113156 0.4083215853430758 5.5191185679853785 48 33 38
-2.216755045453358 -1.4862019768504373 5.616263053195083 44 34 41
-2.098441053579825 0.3718698994710641 5.04768320660749 111 79 84
-2.706045656396998 -1.4694175642177556 5.5802814037206705 91 73 97
-2.759141604167298 0.37884564596587134 5.501595857908728 77 74 83
-2.9140085780214293 -1.4634669676696102 5.578444876289735 119 104 132
-2.971564623845815 0.3322272324798823 5.4809808773802935 144 149 196
0.6827954839113215 -1.431493961316593 5.2844202064901875 93 55 66
-2.0920270080880643 0.32705176397526436 5.0499629099796755 114 61 69
-0.6784294789338072 -1.3873121388557819 5.1650821464177685 74 36 44
2.973964375394756 0.4656397520545453 5.700207775674265 125 114 134
-0.7794224762281751 -1.3886794525780566 5.173811617420839 75 38 45
-3.1679835957991145 0.2875889953243214 5.494974962947473 66 68 86
-0.8553108997971872 -1.3890851757832685 5.158307861148413 64 33 41
-2.151480858864513 0.30698551556995257 5.530814997558288 78 66 79
-1.388839834923959 -1.4048181681155414 5.212075633637517 72 43 48
-2.936718364175468 0.2073992963170372 5.497253377083991 91 72 84
-2.01170772372796 -1.4910302261898063 5.629864285605186 100 91 114
1.436139129290521 0.3831076142775837 8.720384590590678 0 0 0
-2.774044997810609 -1.475707504038303 5.591530234850827 84 60 81
-2.5904755465152984 0.21120470774411904 5.5093332925966685 87 68 80
-2.9778661068040635 -1.4788192850720694 5.578319171937048 71 56 79
-0.6486979918258601 0.1670470405808359 5.230188080775869 94 52 62
-3.104200363923771 -1.4781195382415324 5.575966476582044 37 26 47
-1.603301818046543 0.14444550989594743 5.353836673474453 97 56 69
-3.2455943657719164 -1.4824271881017956 5.566091347265703 90 75 102
0.9685772635009061 0.14380155629471353 5.4415217069895805 97 49 65
-3.3654446910053233 -1.4773317113277198 5.557205010562534 108 79 95
-3.2441334163253774 0.12569080570671706 5.4921661930312675 78 73 95
1.2172314298468276 -1.525218820550799 5.74339418136579 136 126 151
-1.918580704170723 0.11813278213287581 5.1843989401007455 79 50 65
-0.14680748550852832 -1.4251228932400524 5.303051592070587 79 37 49
-2.4029492329152298 0.11602012498545991 5.532901276321685 81 70 79
2.9486028100109687 -1.5509823958046929 5.809517803046187 118 101 123
-0.9880896428773959 0.09139354944890068 5.370286397826097 91 44 50
2.3650197049997166 -1.5325669631107757 5.772481149422584 77 66 78
-1.0791755920064878 0.0276367531509706 5.375568863227342 71 32 41
2.1174817857530415 -1.5375595503649873 5.764425026607413 81 64 84
0.7868779770573262 -0.010110970079524634 5.441897333279659 67 29 39
1.4259546512265389 -1.524692832489419 5.7411641477121655 115 80 90
-1.5054309102021757 0.01506220590510802 5.329578677459936 100 50 58
-2.4656897262139528 -1.4974268815193892 5.600721654652548 92 67 80
-0.49893506475297916 -0.01979347440215602 5.140120111515975 116 109 115
2.610715029397158 -1.533315941183096 5.775129757164505 78 71 89
-1.8421759142694931 -0.005537248626986408 5.305545808291335 87 39 51
-2.31462623753828 -1.5034354889607844 5.614834661520489 76 64 81
-3.225051208559722 0.02827731322518615 5.494275473245367 67 59 78
-0.3663989102231531 -1.451749740511005 5.288654732553231 97 52 62
2.9460612430619 -0.07839230268414672 4.749593561578123 179 195 231
1.813673342090492 -1.540164662334178 5.760092731242468 101 76 99
-0.4565956616234797 -0.04163333882385564 5.100877974474876 69 57 64
-0.2603998770267815 -1.4360829319000281 5.288181116963895 85 39 51
-0.41327740403841484 -0.054699957916330214 5.06615209657082 134 122 99
-0.3431103448419859 -1.4627830056093127 5.2971563413351594 93 52 58
-0.19764562190136867 -0.07441053226407697 5.040215873543586 84 64 53
-0.29899654714020835 -1.464197171244825 5.2983053443829435 87 42 50
2.8423517780544927 -0.1575333378831376 4.821407568167414 179 197 240
0.12814747248018515 -1.4413089689646703 5.18034934501553 96 52 64
2.7338177607074456 -0.1561339124864176 4.829650531424141 191 210 248
0.45596560976355294 -1.4745218678785978 5.346528241515296 70 40 48
-0.4542463307206853 -0.09597812157307803 5.192445513691697 143 127 112
-0.5134226423743493 -1.4761316406227016 5.2960918587439245 77 42 53
-3.122784718020892 -0.04367832282760227 5.510514834796506 69 59 72
-0.752408182899458 -1.4472277157693312 5.159410455307494 80 43 55
-3.2108580211570343 -0.03927687762619967 5.502097367937495 63 52 66
-0.7778583469193047 -1.453396246619844 5.156863411327493 116 63 78
2.9479276975020454 -0.22339968522449544 4.756048726336239 186 199 241
-1.0788167288194224 -1.4763435336163897 5.299247941244343 61 34 46
-0.43404304601551036 -0.16037344857353036 5.188253716430445 184 178 167
-0.16957986593155935 -1.4804004706756646 5.313508434137319 74 42 54
2.8468635219118053 -0.31169709245447674 4.813129295666147 174 180 219
2.6055342773614147 -0.31240375144670535 4.832383503016212 205 221 255
-0.7255688028975649 -1.4493277770116664 5.147609643000952 111 74 87
2.5843343055858754 -0.33949914056523794 5.730991047080342 63 56 77
-0.8127582170293843 -1.4515063719086931 5.146402997629176 120 79 94
-0.7498119085317139 -0.22631879433869856 5.25234073607898 77 48 64
-0.8576067725677398 -1.457286417195578 5.164306715778214 108 58 67
2.961745802515601 -0.37633973058334247 4.768356129212308 179 192 236
1.638805650674925 -1.6097938450234104 5.75401126644504 97 73 93
3.6736701076114326 -0.437179313890949 6.101638144505116 128 138 181
0.26545317060590023 -1.4843529728278977 5.162390508884335 104 58 71
-2.0365101056731545 -0.23525052601864951 5.5535996018045335 35 27 30
-3.3201196766638623 -1.5663649207413401 5.566271146795904 92 67 82
-3.0022109668171724 -0.1891131359250089 5.514134906881621 100 79 92
-0.3590684709729407 -1.5149158453522484 5.3001184068506335 54 26 34
2.8413212294427725 -0.46405713990303193 4.8286063149462715 172 182 225
-0.8579278201594254 -1.4796237649573813 5.161110118585082 90 48 54
2.4833289083564614 -0.45960341163125723 4.85824451939523 184 199 241
-0.9484592291584194 -1.5155386293922186 5.279237210651452 63 35 43
1.1597248512629517 -0.43842995713913185 5.256263902495499 77 32 37
-3.2389126806328923 -1.5852289905864316 5.568430922576588 96 86 103
-1.0209718210802294 -0.3264327425365262 5.386540970297999 65 31 35
-0.11701102816634983 -1.5337147540469145 5.30777056786812 72 32 36
1.4174762037488682 -0.4586995312542659 5.327431400989121 130 80 99
-0.25073258995126435 -1.539462554121466 5.302668359681974 63 31 33
2.976412439594154 -0.5777665849701945 5.725446671821023 123 128 176
-0.5087999156320865 -1.5359500842341824 5.296088239042388 75 34 38
-0.8796182369314635 -0.3887360038300113 5.242825617906111 76 40 46
-0.37252640396824666 -1.5332479058237676 5.301862522016911 66 34 38
-1.678451110327219 -0.3410599611892381 5.242774420927324 100 65 79
-1.5152304234453742 -1.5356015940108831 5.256614437462302 129 76 91
-2.0708808245935826 -0.3156369062096375 5.196338222444043 85 54 62
-0.6859092103000352 -1.526503977192949 5.140087173851759 81 51 59
-1.8726000834686443 -0.35357664792678933 5.245724712243708 46 23 23
-0.844457611691867 -1.5142478424012324 5.134597986025655 75 42 52
-2.0888608037563086 -0.34528173310227744 5.181565643239414 89 49 51
-2.0092997503256735 -1.6507050586070047 5.6283989380454145 71 49 62
-3.0297587424281214 -0.3144082179033305 5.526589320859708 47 41 52
-1.915374589075952 -1.6604077987928532 5.629177168171519 97 79 90
1.1451793877458742 -0.5368951445517698 5.269464518807671 105 50 63
2.1050835853152225 -1.693762279034262 5.765248503935635 75 63 81
-2.482044226946643 -0.37026776747778484 5.552958030932058 57 49 60
1.2347191038309313 -1.6946731295703346 5.742014530777841 91 68 83
1.409969399412631 -0.6164307384477803 5.32416764072977 90 37 44
-2.1909230073316843 -1.6660337729299282 5.621344704033688 94 76 96
4.045431375878045 -0.8316532087535599 6.213939997685119 125 132 176
-2.312046827608899 -1.6563000127732548 5.621536076973836 75 62 73
-1.7925560854500835 -0.38997222356600925 5.145704855528828 122 67 80
-3.216125129276356 -1.652944882808221 5.580042269739212 76 69 83
-1.8825153513614106 -0.4241458034029039 5.081970763543419 104 60 75
1.64009737478104 -1.70727105157039 5.7583165672524705 86 62 70
2.9664442999091998 -0.83652052654596 5.760882155064384 126 126 161
0.5767509435321182 -0.6485952330120737 5.418152351224956 75 41 49
-1.1479134875067274 -0.5297382883051425 5.397918744325469 69 37 52
-2.5103670073188775 -1.6650168668667347 5.5986204555473105 72 52 60
-2.2278943608717774 -0.47512178903361363 5.565386163122897 54 40 53
-2.7930639542132654 -1.6731227277981644 5.597879191862918 83 57 68
-0.007110069438810201 -0.6365027150384929 5.276316376374862 118 67 76
1.3508910796785216 -1.706957602920479 5.744806009245376 127 104 123
-0.007606614024418403 -0.66560498756203 5.277913597871111 111 64 74
0.4374262199540426 -1.605268444823123 5.326887084277349 71 42 59
-1.3128915962153607 -0.5663307811806437 5.3880448880012715 61 29 32
-1.0718880432755258 -1.595656787913815 5.28630313989082 64 36 43
-2.4676604800963258 -0.4874176189883121 5.5581969777629645 67 53 63
-2.6533148289229476 -1.679957273843668 5.609466202318906 79 55 62
-2.508689762884766 -0.49775175606346655 5.561517326853927 61 47 54
-2.9503639039730474 -1.680905974086169 5.594738299317228 77 59 72
0.9771649078775334 -0.8152742279686438 5.68863165281413 100 63 82
-3.086027879659299 -1.6675824550616838 5.583058928120293 75 53 67
-0.0058842990340658985 -0.7035956028378557 5.279119628544574 103 57 66
0.31609525163698826 -1.6003627049538502 5.288000830820941 85 41 59
-0.6694370631207903 -0.6433926749831125 5.244738893271066 100 61 78
-0.9279256443659434 -1.5630024634171833 5.150741972005894 45 21 26
-0.995028286396121 -0.6577721544886563 5.399657816380963 77 41 48
0.7970651934805242 -1.6222726444020683 5.317845859239869 131 79 90
-2.133841089933143 -0.589034701674216 5.574533624869843 77 60 72
0.7192215437726631 -1.6134536618528434 5.306046373571211 120 67 83
-2.0446976969888913 -0.5713785029367727 5.169496699616367 106 60 70
-0.7275244691500908 -1.5832852493442038 5.141016046277423 97 56 68
-1.8266093531852883 -0.6115838651158798 5.161989928427443 134 77 92
-1.4101590668570976 -1.6401414517129198 5.286725142075702 132 76 85
-0.9326601547164425 -0.7331419351067412 5.386369029897754 50 21 22
2.9352207183044534 -1.7846874501059309 5.80462333341124 78 60 89
-0.391693458146049 -0.7766461957578104 5.292587853365784 68 49 33
-1.8999344374700293 -1.7418462709969325 5.637694599546385 79 52 67
-2.0291119352196185 -0.6550480654615368 5.576362289561431 99 71 97
2.616348593562904 -1.7843625692816378 5.794350601337229 74 61 78
-2.307942562976852 -0.6517893590810184 5.558964274076191 107 83 102
2.2617216663539703 -1.7816396583037029 5.790203881008526 83 68 93
0.20683249061767325 -0.8877340895371555 5.253644309686266 0 0 0
1.495829836894233 -1.7840197478517348 5.754353355307253 118 88 108
-2.04819848435551 -0.7173861752834961 5.579464495601398 81 65 86
0.23868372785279895 -1.643568905073054 5.191269849442293 98 56 68
-1.6471394491950566 -0.7671522952239511 5.5878015673720185 103 70 86
-1.6923228321933435 -1.7552530519629295 5.644838599747239 96 70 89
-0.39722408056641717 -0.8929539223979562 5.3284452347904745 79 44 49
-1.7865372024319985 -1.7601524171436431 5.645615796922251 68 53 86
-1.6331439819734135 -0.8065418460702277 5.592316112179751 96 81 100
-2.1912339988730096 -1.7556593906185947 5.630435259330252 52 38 47
-0.3936777680602944 -0.9314237102681042 5.110696159927797 0 0 0
-3.097612916531998 -1.7459163955448542 5.581498798094241 91 65 77
0.039178281647334744 -1.0120132001392697 5.260787372265806 73 38 44
2.074251564493633 -1.8048128783140434 5.774883911951611 90 73 84
-1.580079379800571 -0.8988340413264672 5.596135390130226 88 61 74
1.3041412652770488 -1.787298457187103 5.751122532680041 114 104 129
-1.1001197445074247 -0.9618702179431742 5.406100273468277 64 34 44
1.0486290926439061 -1.7849119687823187 5.742385850678805 88 69 87
-0.6825864941754136 -1.0067047413525518 5.2152042816258275 118 67 75
0.4684819859803403 -1.6831721171356537 5.310054533556667 83 52 64
3.420250468110841 -1.6587111614217556 5.8284064079386 184 203 245
-0.8718478116805203 -1.6444971331534475 5.165854782693154 90 54 62
-0.978849583955489 -1.0525309940038345 5.409884369962996 98 51 59
-2.0937077247689686 -1.7622165418001379 5.643587429126005 97 84 98
-1.5111994637583879 -0.966331972655705 5.311614725204514 90 45 59
-2.353163007656601 -1.7579813665795494 5.618542851814875 99 78 96
0.22873263612435366 -1.2150262862487813 5.127793692056032 78 38 49
-2.4824402489401005 -1.7645116319201168 5.623804834153084 90 86 101
-2.651469318896987 -0.8951363832882947 5.563799405045443 83 64 87
-2.5996330960671417 -1.7569098619895065 5.616312473620018 92 77 90
-2.8404208887702276 -0.8852295939102547 5.550195048809899 97 76 96
-2.856432862749529 -1.7603383197791147 5.599679298865025 64 41 49
-3.029236739530729 -0.8646988487107794 5.538133521839908 97 75 97
-1.3705423512515575 -1.7784800944459986 5.659831349777067 61 47 58
-0.00450650373090117 -1.244881538007526 5.3005750771153 89 54 65
-2.718525044618906 -1.7694980967709404 5.602841841952715 99 69 78
1.6388371602222331 -1.5910015811679261 5.7544225460826794 114 92 115
-1.3261569544853054 -1.8070875206132309 5.656883721664474 97 83 100
0.5257940363956489 -1.395396292257828 5.32899930726286 74 43 56
0.2583860993393269 -1.6883315598152528 5.192123237752903 86 49 59
-0.868201901411042 -1.2285386438154726 5.255804926929369 39 20 25
-0.8724574198334247 -1.6855093678684572 5.161204480291153 71 39 49
0.03379914244302039 -1.379745647659988 5.299599968156175 62 31 36
1.9876802448261515 -1.8684252180065943 5.770626173365678 85 57 86
0.6386378266047852 -1.4888025101148292 5.29237130440281 89 46 55
0.5067306170046082 -1.7445877067313638 5.320318565198866 75 43 51
0.6370777164648314 -1.532140452756838 5.4033346412264205 89 47 54
0.24121413298169975 -1.7240859079852264 5.1966819173609755 101 55 64
-1.3927558213425295 -1.263944741008029 5.628676977479434 47 34 39
-1.0032415255568725 -1.7390815131002606 5.26754789149644 65 33 38
0.6466299426818126 -1.5265587738674669 5.291326751597775 146 102 119
-0.8886041175572877 -1.7099058558121671 5.15329284952732 103 56 64
-1.553340173614369 -1.2310329370404585 5.554836299424478 0 0 0
-2.107170033951663 -1.8439250082585048 5.633173799864353 111 92 110
-2.923452955708542 -1.042011444414331 5.552418374347968 59 51 65
0.23174570885262114 -1.7316285957003617 5.199359332052791 82 40 46
0.45485592909255407 -1.5112892131528353 5.32834636831911 99 62 79
0.08513525722648872 -1.755380198638123 5.205799263857774 71 37 46
0.017201512004267484 -1.4806234043162534 5.287956152923248 37 22 27
-0.005556763345907686 -1.7539252547521507 5.202132142609258 70 37 46
-0.863260008904747 -1.3344870602224101 5.177422183680866 55 25 32
-0.10546154735529024 -1.7579080247756818 5.198799162133344 82 49 60
-0.8756355198577247 -1.373390279210265 5.272918139965997 71 34 41
-0.2798051976338407 -1.757992482003452 5.193793387224121 79 45 56
-1.2968713505576293 -1.3107926691953473 5.274217405026485 54 29 37
-0.35864119418388607 -1.753966290108665 5.193854123378525 74 41 48
-3.005112667067207 -1.09513954537762 5.553389826634826 48 41 59
-0.44550978588687007 -1.7548116868476678 5.188964247758039 74 43 53
-0.8651692801395973 -1.4466201267420533 5.245172948835204 63 31 37
-0.6390187320626357 -1.7557164055976981 5.183144778524797 78 47 57
-2.4612942572381766 -1.2494304153934803 5.591782344952237 83 64 77
0.9139785606649419 -1.9168761148431217 5.742110126668268 117 86 109
0.5129913162720594 -1.740899536994249 5.309121127110942 74 46 60
2.2342065130230404 -1.9310956753328468 5.787385961094547 103 91 116
-0.9172284841064848 -1.4910622703333782 5.285673696133323 77 38 41
1.2950840366038183 -1.9189482812919056 5.754684795726103 100 71 81
0.23033977086499766 -1.6800581889945887 5.189129091258989 72 33 42
-0.7580209634087205 -1.5021331815353922 5.129570712294622 76 49 65
-1.7831858391747448 -1.8912160487266234 5.652989918422875 94 80 102
-1.5639640787681144 -1.4732950622308678 5.63618410655457 89 74 94
1.53954260125906 -1.933006160837263 5.766033875497652 97 79 105
-0.8928948408962576 -1.527947113734652 5.22230421790254 55 35 42
1.0140804372802652 -1.9289779205337056 5.74610032132297 114 83 99
-1.4406623013093016 -1.453423048942023 5.211382201955199 94 54 63
0.9591419356241662 -1.9241778920892942 5.74429914655454 121 95 113
-2.222742399798524 -1.3941462765987989 5.606693267683677 73 65 80
-0.9565138244467857 -1.7981787831150733 5.290270871783773 67 36 41
-2.2252752530207522 -1.419530864386821 5.607986195045024 87 75 90
-1.2454719899405269 -1.9032174205014933 5.66128899824952 52 36 43
-1.1069394960218883 -1.6008845038520843 5.283972799228014 75 50 62
-1.3416636378537725 -1.9037374472821191 5.659474220751635 82 68 87
2.871890643175719 -2.5007246179385008 5.77693560774385 144 147 186
2.048650960698006 -1.944169995825976 5.775860424854108 98 70 85
-0.901106539946513 -1.6642746886673774 5.256930034433356 47 22 28
1.7392716851866599 -1.9372567107878358 5.772170503050655 79 59 74
-0.9975855762577693 -1.6704882360316573 5.2574060934989175 62 30 37
1.136395884927503 -1.9422961257395797 5.754547958792125 111 84 100
0.1151035636918254 -1.8875435608798403 5.218205014961469 82 58 74
-1.0261263311422988 -1.8073408764100767 5.290900888690384 66 37 46
-1.0551249364294146 -1.6733156556670958 5.258198480370715 68 38 47
1.9272955199473643 -1.951344559379988 5.788828199529249 93 90 112
-2.7908906749045554 -1.402597129957203 5.5776143617052085 104 91 115
-2.9130728807940063 -1.4284985624557274 5.570253352506624 59 53 77
-0.06982590830658596 -1.802535924708187 5.203813365913784 94 61 78
2.016492543080127 -2.5473605242780972 5.814576347771433 99 83 110
0.12002066717739918 -1.809543289573006 5.2118658997034695 89 54 72
-2.845052127181838 -1.4778232726822058 5.582880793795376 78 64 85
0.03632230620693329 -1.8068369488861633 5.208531605492977 94 55 68
-3.248641613818361 -1.3920663559071267 5.557502998374977 36 33 49
-0.14837439915661196 -1.80892059947219 5.201969852952927 110 66 72
1.8230392009957428 -2.5189756963448025 5.806226984948738 90 73 100
-0.23889931135083714 -1.8044352944475175 5.194969074881132 81 45 57
-2.1561960304249883 -1.6467099927027442 5.623186201640486 78 62 82
-0.32402232287346017 -1.8044535242019701 5.195785469325339 91 50 58
-1.149568010802923 -1.8937645599950337 5.651611221505836 43 22 27
-0.42085694520061595 -1.8043800990645191 5.190244209311173 86 48 65
-2.792583273582593 -1.5426338148320098 5.591106522988018 95 83 103
-0.4965433739672716 -1.8059347845398244 5.191047355635486 93 54 64
1.6112169434672365 -2.5328623592457595 5.797964399271925 101 81 109
-0.5843866984963072 -1.8003493481494706 5.1864031980924015 89 54 70
1.4744643056061666 -2.521044879896612 5.79061030747136 111 87 110
-0.6101448392014794 -1.8020245348571646 5.185031367194009 81 46 60
-0.89242859028282 -1.876147197510703 5.286094068241799 47 23 28
-0.7720327968899154 -1.8028750971405043 5.178956265943764 89 54 71
-2.7925419163804017 -1.56010198309115 5.5922833113359465 71 56 69
-0.8284049485312093 -1.8060711160037033 5.181196856629492 81 48 66
1.388618435818282 -2.5175072895001414 5.787910977217472 116 89 114
-0.37710962225617023 -1.807010782727241 5.197647083558289 109 66 83
1.1882395871262657 -2.5294569010121433 5.782721000354541 111 97 121
-0.6827120891675356 -1.8073287684466208 5.1839575239873605 98 59 69
1.0901670846744191 -2.5100444464758476 5.784620103389434 73 54 75
-0.6853562301163836 -1.976323362211042 5.061257451249848 70 45 52
-0.7324612165451283 -1.8350317653991919 5.1828267064426425 84 51 64
-0.23622045133855238 1.370741894962034 3.437609723304723 108 144 225
-1.1091016583572422 -1.8903879046421623 5.309721626839932 59 29 31
-1.8147345071186827 1.3932500146418403 3.7822471487179437 66 72 78
-0.09094865294723042 -1.858093864664624 5.210523673776792 88 60 74
0.8880207728793359 0.8251341373581409 4.2341836679339995 116 66 82
2.749491405654024 -2.0525517366777777 5.805118713179598 111 84 108
-1.1222089435909626 0.13290715858792876 5.369233907957489 104 56 65
2.5981166148894497 -2.0517503127544554 5.807125287578101 70 58 71
-0.22791823918247295 -0.0556600275598092 5.0429701888348255 89 81 77
1.562382800473787 -0.4291690771323026 5.690362441986585 105 81 105
1.9817016001673553 -2.0543505027473463 5.788458627148609 87 75 94
1.377093336860665 -0.6518072604999684 5.293063190139607 136 88 103
-0.028566897818858062 -1.8753602602956572 5.209476699848635 109 58 70
-1.4913688245256629 -1.3879103800370092 5.266565801900798 98 59 72
1.6433632548429251 -2.053616739407889 5.781691236618184 106 81 103
0.5308365813228388 -1.9155844467360774 5.723456498191184 75 53 59
1.290404717562017 -2.0445315593346858 5.760757181956029 94 69 92
1.88947928280181 0.26969851480837936 5.687084064366108 40 30 36
1.1452636789854957 -2.042391422779378 5.757336812382007 100 82 104
2.9693157684079488 0.5140864743586774 5.69537514349393 37 26 40
1.024789029523511 -2.043764483509312 5.749505066494778 113 79 101
2.112043528511443 -2.0533511384988654 5.786187536349375 28 26 31
0.8989369237333732 -2.0396642270890566 5.749701257382917 85 67 86
-3.4735981539212086 0.15558959732254518 5.482210312098252 77 64 85
0.21676948104813534 -1.8881767053122354 5.218026045523641 72 37 48
-0.4613084962304846 -0.20166553576627969 5.25002111657084 89 62 63
